ply
format ascii 1.0
element vertex 3155
property float x
property float y
property float z
property uchar signal_strength
end_header
-117 32 -59 72
-124 34 -62 64
-127 35 -62 64
-130 35 -62 64
-134 37 -63 64
-131 36 -61 64
-130 36 -59 72
-136 37 -60 72
-139 38 -60 72
-139 38 -59 72
-141 39 -59 72
-140 38 -57 72
-141 39 -56 72
-145 40 -57 72
-145 40 -55 64
-150 41 -56 64
-147 40 -54 64
-155 42 -55 64
-161 44 -56 64
-167 46 -56 64
-156 43 -51 64
-170 46 -54 64
-185 51 -57 64
-188 51 -57 64
-194 53 -57 64
-203 55 -58 64
-204 56 -56 64
-210 57 -56 64
-214 59 -56 64
-224 61 -57 64
-226 62 -55 64
-234 64 -55 64
-243 66 -55 64
-254 69 -56 64
-252 69 -54 56
-267 73 -54 64
-270 74 -53 64
-278 76 -52 64
-288 79 -52 56
-287 79 -50 56
-324 89 -53 56
-351 96 -55 56
-357 98 -53 56
-372 102 -52 56
-385 105 -51 56
-392 107 -49 56
-410 112 -48 56
-390 107 -43 80
-412 113 -42 56
-438 120 -41 56
-465 127 -40 48
-518 142 -41 104
-518 142 -37 88
-513 140 -33 80
-534 146 -30 72
-542 148 -26 88
-559 153 -22 48
-566 155 -18 56
-570 156 -14 56
-571 156 -10 56
-571 156 -5 56
-569 156 -1 56
-571 156 4 56
-575 157 8 56
-575 157 12 48
-570 156 17 56
-577 158 22 48
-569 156 26 56
-572 157 30 56
-575 157 34 56
-576 157 39 48
-575 157 44 48
-573 157 48 56
-574 157 52 48
-575 157 57 56
-572 156 61 48
-576 158 66 48
-580 159 71 48
-579 158 76 56
-573 157 79 104
-569 156 83 48
-565 155 87 48
-566 155 92 48
-568 155 97 56
-569 156 101 56
-568 155 105 48
-566 155 109 56
-564 154 114 56
-562 154 118 56
-566 155 123 56
-568 155 128 56
-568 155 133 56
-572 157 138 96
-833 228 208 56
-824 225 213 48
-542 148 144 72
-541 148 148 56
-530 145 150 104
-528 145 154 48
-520 142 156 88
-512 140 156 48
-510 140 161 56
-507 139 164 48
-493 135 163 88
-928 254 315 40
-914 250 318 48
-865 237 309 64
-846 231 309 72
-847 232 316 56
-857 234 328 40
-827 226 324 48
-855 234 342 48
-807 221 331 64
-759 208 317 72
-767 210 327 56
-822 225 358 64
-844 231 376 64
-812 222 369 56
-787 215 365 64
-815 223 385 40
-773 212 373 56
-764 209 376 64
-957 262 489 56
-991 271 516 40
-1043 285 563 56
-1033 283 600 48
-1019 279 601 40
-1018 279 611 40
-1267 347 827 32
-828 226 605 48
-815 223 605 40
-799 219 603 56
-812 222 623 48
-814 223 635 40
-783 214 619 72
-774 212 621 64
-770 211 628 56
-769 210 635 40
-757 207 655 72
-735 201 646 40
-540 148 577 32
-354 97 396 40
-346 95 393 96
-1904 521 2866 24
-1170 320 2579 16
-48 13 265 24
-7 2 316 16
228 -62 3547 24
192 -52 1329 24
511 -140 2262 16
806 -220 2107 48
520 -142 1277 24
864 -237 1717 16
2014 -551 2733 24
3170 -867 2150 24
22 -6 10 16
1562 -427 522 48
1864 -510 484 48
1334 -365 218 40
1358 -372 210 64
1477 -404 114 40
279 -76 19 80
307 -84 19 72
288 -79 15 80
279 -76 13 56
300 -82 11 64
293 -80 9 72
295 -81 7 48
297 -81 4 88
286 -78 2 80
293 -80 0 72
280 -77 -3 48
284 -78 -4 40
308 -84 -7 48
305 -83 -12 72
281 -77 -13 72
274 -75 -15 56
275 -75 -17 72
287 -78 -20 80
295 -81 -23 96
292 -80 -25 88
302 -83 -28 88
336 -92 -34 64
347 -95 -38 64
318 -87 -37 72
304 -83 -38 80
280 -77 -37 80
265 -72 -37 80
264 -72 -39 88
262 -72 -41 88
236 -65 -39 56
225 -61 -38 56
213 -58 -38 64
210 -57 -39 64
201 -55 -39 56
188 -52 -38 64
186 -51 -39 64
192 -52 -42 64
187 -51 -42 64
186 -51 -44 64
182 -50 -44 64
180 -49 -45 64
183 -50 -48 64
178 -49 -48 64
178 -49 -49 64
176 -48 -50 64
177 -48 -52 64
178 -49 -54 64
172 -47 -53 64
173 -47 -55 64
166 -45 -54 64
161 -44 -54 64
165 -45 -57 64
163 -44 -57 64
160 -44 -58 64
156 -43 -58 64
154 -42 -58 64
151 -41 -58 64
141 -39 -56 64
146 -40 -59 64
148 -40 -61 64
138 -38 -59 64
136 -37 -59 64
136 -37 -60 64
134 -37 -60 64
130 -35 -60 64
125 -34 -59 64
120 -33 -57 64
120 -33 -58 64
117 -32 -58 64
116 -32 -59 64
112 -31 -58 72
110 -30 -58 72
109 -30 -58 64
107 -29 -58 64
106 -29 -59 72
103 -28 -58 64
103 -28 -59 64
102 -28 -60 64
99 -27 -59 64
98 -27 -60 64
99 -27 -61 64
101 -28 -63 64
98 -27 -62 64
98 -27 -64 64
95 -26 -63 64
97 -27 -65 64
93 -25 -63 64
94 -26 -65 64
92 -25 -65 64
88 -24 -63 64
91 -25 -66 64
87 -24 -64 64
87 -24 -65 64
86 -24 -66 64
85 -23 -66 64
84 -23 -66 64
85 -23 -68 64
87 -24 -70 64
82 -22 -67 64
78 -21 -65 64
78 -21 -67 64
77 -21 -67 64
77 -21 -68 64
77 -21 -68 64
73 -20 -66 64
73 -20 -67 64
72 -20 -67 64
72 -20 -68 64
71 -20 -69 64
71 -19 -69 64
70 -19 -70 64
70 -19 -70 64
67 -18 -69 64
-70 20 -72 64
-72 20 -73 64
-74 21 -74 64
-75 21 -74 64
-75 21 -72 64
-76 21 -72 64
-79 22 -74 64
-78 22 -72 64
-80 22 -73 64
-80 23 -72 64
-82 23 -73 64
-80 23 -70 64
-80 23 -69 64
-79 22 -67 64
-80 23 -67 64
-84 24 -69 64
-83 23 -67 64
-83 23 -66 64
-82 23 -64 64
-87 24 -67 64
-90 25 -68 64
-91 26 -68 64
-91 26 -67 64
-92 26 -66 64
-94 27 -67 64
-96 27 -67 64
-96 27 -66 64
-96 27 -65 64
-98 28 -65 64
-100 28 -66 64
-101 29 -65 64
-99 28 -63 64
-98 28 -61 64
-99 28 -61 64
-99 28 -60 64
-101 29 -60 64
-104 29 -61 64
-108 30 -62 64
-109 31 -62 64
-110 31 -60 64
-114 32 -62 72
-114 32 -61 64
-114 32 -60 72
-114 32 -58 72
-116 33 -58 72
-127 36 -63 64
-127 36 -61 72
-132 37 -63 64
-131 37 -61 64
-131 37 -59 64
-134 38 -59 72
-137 39 -60 72
-139 39 -59 64
-141 40 -59 72
-141 40 -58 72
-141 40 -56 72
-144 41 -56 72
-148 42 -57 64
-144 41 -54 64
-149 42 -54 64
-158 45 -56 64
-162 46 -56 64
-168 47 -57 64
-167 47 -55 64
-167 47 -54 64
-181 51 -57 64
-178 50 -54 64
-191 54 -57 64
-203 57 -59 64
-197 56 -55 64
-203 57 -55 64
-209 59 -55 64
-215 61 -55 64
-227 64 -56 64
-222 63 -53 64
-232 65 -54 64
-243 68 -54 64
-254 72 -54 64
-259 73 -53 56
-265 75 -53 64
-270 76 -52 64
-279 79 -51 56
-294 83 -52 56
-312 88 -52 104
-346 98 -55 56
-358 101 -54 56
-362 102 -52 56
-373 105 -51 56
-394 111 -50 56
-402 113 -48 56
-393 111 -44 88
-401 113 -42 88
-430 121 -42 56
-448 126 -40 48
-465 131 -38 48
-480 135 -35 88
-477 135 -32 48
-502 141 -30 80
-522 147 -27 72
-544 154 -23 88
-558 157 -20 96
-566 160 -16 56
-572 161 -12 56
-569 160 -7 56
-570 161 -3 56
-563 159 2 48
-568 160 6 48
-572 161 10 56
-570 161 15 56
-569 161 19 56
-567 160 24 56
-573 162 29 56
-573 162 32 56
-571 161 37 56
-570 161 41 56
-566 160 46 56
-561 158 50 56
-567 160 54 56
-571 161 59 56
-571 161 64 56
-568 160 68 48
-567 160 72 56
-562 159 76 56
-565 159 81 56
-569 160 86 56
-568 160 90 48
-567 160 95 56
-565 159 99 56
-568 160 103 56
-567 160 108 48
-571 161 113 56
-567 160 116 48
-566 160 121 56
-567 160 126 56
-568 160 131 56
-563 159 134 56
-829 234 211 64
-824 232 216 48
-540 152 146 88
-533 150 149 48
-533 150 153 48
-521 147 154 48
-935 264 283 72
-511 144 159 56
-507 143 162 64
-493 139 162 56
-914 258 309 40
-910 257 315 40
-855 241 303 56
-849 239 308 80
-852 240 317 56
-837 236 319 40
-776 219 302 48
-826 233 329 32
-812 229 330 48
-775 218 322 64
-802 226 341 48
-830 234 361 56
-845 238 375 56
-830 234 376 64
-847 239 391 48
-828 234 390 48
-791 223 380 64
-847 239 415 32
-966 272 492 56
-950 268 492 56
-994 280 525 40
-962 271 518 48
-944 266 517 40
-957 270 534 48
-1015 286 586 40
-1019 287 599 48
-1004 283 601 48
-1014 286 617 40
-1703 480 1127 24
-826 233 603 56
-827 233 613 56
-791 223 596 56
-780 220 597 56
-806 227 625 56
-787 222 621 72
-768 216 615 48
-765 216 623 64
-774 218 639 48
-742 209 650 64
-2393 675 2631 24
-339 96 385 80
-348 98 401 32
-929 262 1729 16
-961 271 2910 16
125 -35 1401 16
583 -164 2301 16
98 -28 225 24
1878 -530 3439 24
1128 -318 1190 24
1181 -333 1055 24
1794 -506 1554 48
2002 -565 1487 24
3191 -900 1978 32
3431 -968 1715 24
1585 -447 537 40
1624 -458 524 56
1780 -502 410 64
1722 -486 356 32
1456 -411 265 56
1392 -393 221 56
1383 -390 165 32
269 -76 15 40
287 -81 14 48
299 -84 12 56
311 -88 10 48
300 -85 7 64
282 -80 5 48
293 -83 3 88
295 -83 1 64
281 -79 -2 64
318 -90 -12 48
834 -235 -37 48
249 -70 -15 40
255 -72 -17 56
283 -80 -21 88
280 -79 -23 96
272 -77 -25 96
291 -82 -28 80
371 -105 -40 40
306 -86 -35 64
296 -84 -36 64
295 -83 -39 64
261 -74 -36 80
266 -75 -39 88
267 -75 -41 88
240 -68 -39 48
222 -63 -38 64
220 -62 -39 56
212 -60 -39 56
219 -62 -42 56
205 -58 -41 56
191 -54 -40 64
190 -54 -42 64
190 -54 -43 64
187 -53 -44 64
187 -53 -45 64
188 -53 -47 64
189 -53 -49 64
184 -52 -49 64
177 -50 -49 64
179 -51 -51 64
176 -50 -51 72
182 -51 -55 64
176 -50 -54 64
173 -49 -55 64
172 -48 -56 64
162 -46 -54 64
163 -46 -56 64
162 -46 -57 64
158 -45 -57 64
155 -44 -57 64
155 -44 -58 72
156 -44 -60 64
141 -40 -56 64
145 -41 -59 64
147 -41 -60 64
141 -40 -59 64
140 -39 -60 64
141 -40 -62 64
138 -39 -62 64
134 -38 -61 64
130 -37 -61 64
129 -37 -62 64
124 -35 -60 64
122 -34 -60 64
117 -33 -59 64
114 -32 -59 64
107 -30 -56 64
105 -30 -56 64
107 -30 -58 64
105 -29 -58 64
102 -29 -58 64
100 -28 -57 64
98 -28 -57 64
99 -28 -59 64
97 -27 -59 64
98 -28 -60 64
100 -28 -62 64
99 -28 -63 64
96 -27 -62 64
96 -27 -63 64
98 -28 -65 64
94 -27 -64 64
94 -26 -65 64
94 -27 -66 64
93 -26 -66 64
88 -25 -64 64
89 -25 -65 64
89 -25 -67 64
89 -25 -67 64
85 -24 -66 64
85 -24 -67 64
87 -25 -69 64
87 -25 -71 64
84 -24 -69 64
81 -23 -68 64
78 -22 -66 64
77 -22 -66 64
79 -22 -69 64
76 -21 -67 64
76 -21 -68 64
73 -21 -67 64
73 -21 -68 64
71 -20 -67 64
72 -20 -69 64
71 -20 -69 64
73 -20 -72 64
72 -20 -72 64
68 -19 -69 64
69 -19 -71 64
-72 21 -75 64
-73 21 -74 64
-74 21 -74 64
-75 22 -74 64
-75 22 -73 64
-74 22 -71 64
-76 22 -72 64
-77 22 -72 64
-79 23 -73 64
-80 23 -72 64
-81 24 -72 64
-81 23 -71 64
-81 24 -70 64
-81 24 -69 64
-82 24 -69 64
-83 24 -68 64
-83 24 -68 64
-84 24 -67 64
-85 25 -67 64
-88 26 -68 64
-88 26 -67 64
-90 26 -68 64
-91 26 -67 64
-91 27 -67 64
-94 27 -68 64
-96 28 -68 64
-97 28 -68 64
-96 28 -65 64
-96 28 -64 64
-101 29 -66 64
-99 29 -65 64
-97 28 -62 64
-99 29 -62 64
-101 29 -62 64
-101 29 -61 64
-102 30 -61 64
-103 30 -60 64
-103 30 -60 64
-107 31 -61 64
-112 32 -62 64
-112 33 -61 64
-116 34 -62 72
-117 34 -61 72
-117 34 -60 64
-117 34 -59 72
-123 36 -61 64
-130 38 -63 72
-128 37 -61 72
-131 38 -62 64
-132 38 -61 64
-132 38 -60 64
-136 40 -60 72
-139 40 -60 72
-141 41 -60 72
-141 41 -58 72
-141 41 -57 72
-143 41 -56 72
-144 42 -56 72
-143 41 -54 64
-147 43 -54 72
-155 45 -56 64
-166 48 -59 64
-169 49 -58 64
-171 50 -57 72
-174 51 -57 64
-184 53 -58 64
-182 53 -56 64
-176 51 -53 64
-198 57 -58 64
-202 59 -57 64
-189 55 -52 64
-207 60 -56 64
-205 60 -53 64
-215 62 -54 64
-215 62 -52 64
-226 66 -53 56
-235 68 -54 64
-240 70 -52 64
-247 72 -52 64
-252 73 -51 56
-261 76 -51 56
-270 79 -51 56
-288 84 -51 56
-309 90 -53 56
-330 96 -54 48
-352 102 -54 56
-365 106 -53 56
-369 107 -51 96
-379 110 -50 96
-384 112 -47 96
-395 115 -46 96
-418 122 -45 48
-438 127 -44 56
-447 130 -42 56
-453 132 -39 56
-463 134 -36 88
-491 143 -34 96
-516 150 -32 96
-540 157 -29 80
-534 155 -25 80
-523 152 -20 64
-566 165 -17 56
-570 166 -14 56
-569 165 -9 56
-569 165 -5 48
-570 166 0 56
-574 167 5 56
-576 167 9 56
-568 165 13 56
-572 166 18 56
-572 166 21 56
-575 167 26 56
-573 166 31 56
-568 165 35 48
-573 166 40 56
-571 166 44 64
-572 166 48 56
-567 165 52 56
-570 166 57 56
-566 165 61 56
-573 166 66 56
-567 165 70 56
-571 166 75 56
-572 166 80 56
-565 164 83 56
-567 165 88 56
-576 167 94 56
-573 167 98 56
-572 166 102 48
-571 166 107 56
-567 165 111 56
-571 166 116 56
-565 164 119 56
-562 163 123 56
-567 165 129 56
-561 163 132 56
-571 166 139 56
-826 240 208 72
-833 242 216 64
-539 157 149 96
-531 154 151 88
-901 262 264 32
-935 272 282 56
-923 268 285 40
-971 282 308 40
-940 273 306 40
-919 267 307 48
-901 262 309 48
-870 253 306 40
-834 242 300 56
-836 243 308 56
-832 242 314 48
-825 240 319 48
-766 222 303 48
-791 230 320 48
-767 223 317 56
-795 231 335 40
-838 244 362 32
-832 242 367 56
-844 245 380 40
-940 273 432 56
-977 284 476 40
-967 281 480 32
-968 281 490 56
-964 280 498 64
-982 285 515 48
-954 277 510 48
-917 266 500 72
-921 268 511 64
-918 267 519 56
-925 269 533 32
-920 267 538 48
-1000 290 595 40
-949 276 606 32
-840 244 600 64
-824 239 598 48
-823 239 607 56
-804 233 602 56
-791 230 602 64
-796 231 615 64
-785 228 618 72
-785 228 628 72
-765 222 621 56
-778 226 640 48
-749 218 636 48
-765 222 767 32
-341 99 386 72
-341 99 392 48
-2002 581 3352 24
-11 3 22 24
-265 77 668 24
-803 233 3585 24
313 -91 1647 32
928 -270 3385 24
1361 -395 1424 24
2299 -668 1696 24
1039 -302 628 24
1535 -446 298 40
1468 -427 273 48
1454 -422 260 40
1412 -410 241 56
1419 -412 231 56
1392 -404 183 40
293 -85 13 32
298 -86 10 48
311 -90 9 80
292 -85 6 88
298 -86 4 48
299 -87 1 40
305 -89 -1 64
311 -90 -3 40
300 -87 -10 40
806 -234 -34 40
263 -76 -15 88
242 -70 -16 88
255 -74 -19 48
265 -77 -21 96
264 -77 -23 96
244 -71 -23 88
230 -67 -24 88
241 -70 -27 72
223 -65 -27 96
220 -64 -28 96
225 -65 -30 88
242 -70 -35 88
243 -71 -37 96
251 -73 -40 80
231 -67 -38 56
230 -67 -40 56
219 -63 -40 56
213 -62 -41 56
203 -59 -40 56
196 -57 -40 64
186 -54 -40 64
185 -54 -41 64
189 -55 -44 64
191 -55 -46 64
189 -55 -47 72
188 -55 -48 64
187 -54 -49 64
179 -52 -49 64
179 -52 -50 64
177 -51 -51 72
174 -50 -51 64
176 -51 -54 64
172 -50 -54 64
171 -50 -55 64
165 -48 -54 64
164 -48 -56 64
162 -47 -56 64
156 -45 -56 64
153 -44 -56 64
152 -44 -57 64
156 -45 -60 64
141 -41 -55 64
147 -43 -59 64
148 -43 -61 64
142 -41 -59 64
143 -42 -61 64
141 -41 -61 64
140 -41 -62 64
134 -39 -61 64
133 -39 -62 64
132 -38 -62 64
123 -36 -59 64
122 -35 -60 64
121 -35 -61 64
113 -33 -58 64
107 -31 -56 64
106 -31 -56 64
108 -31 -59 64
108 -31 -59 64
103 -30 -58 64
100 -29 -57 64
100 -29 -58 64
100 -29 -59 64
101 -29 -60 64
99 -29 -60 64
99 -29 -62 64
99 -29 -63 64
99 -29 -64 64
96 -28 -63 64
95 -28 -63 64
94 -27 -64 64
95 -28 -66 64
92 -27 -65 64
95 -28 -68 64
90 -26 -65 64
89 -26 -65 64
88 -26 -66 64
92 -27 -69 64
87 -25 -67 64
85 -25 -67 64
86 -25 -68 64
86 -25 -69 64
84 -24 -69 64
80 -23 -67 64
78 -23 -65 64
76 -22 -65 64
78 -23 -68 64
76 -22 -67 64
76 -22 -69 64
75 -22 -68 64
74 -22 -68 64
71 -21 -67 64
72 -21 -69 64
72 -21 -70 64
73 -21 -71 64
73 -21 -73 64
70 -20 -70 64
70 -20 -72 64
-71 21 -74 64
-73 22 -75 64
-72 22 -73 56
-75 22 -74 64
-75 22 -73 64
-74 22 -71 64
-76 23 -72 64
-78 23 -73 64
-79 24 -73 64
-80 24 -72 64
-79 23 -70 64
-83 25 -73 64
-81 24 -70 64
-82 24 -70 64
-81 24 -68 64
-82 25 -68 64
-83 25 -68 64
-83 25 -67 64
-86 26 -68 64
-88 26 -69 64
-86 26 -66 64
-90 27 -68 64
-91 27 -68 64
-92 27 -67 64
-91 27 -66 64
-96 29 -68 64
-95 28 -66 64
-95 28 -65 64
-96 29 -65 64
-99 29 -66 64
-98 29 -64 64
-98 29 -63 64
-96 29 -61 64
-100 30 -62 64
-102 30 -62 64
-104 31 -62 64
-105 31 -62 64
-103 31 -60 64
-106 32 -60 64
-107 32 -60 64
-111 33 -61 64
-112 34 -61 72
-120 36 -63 72
-119 36 -62 72
-118 35 -60 72
-120 36 -60 72
-126 38 -62 64
-125 37 -60 64
-128 38 -61 64
-130 39 -60 64
-130 39 -59 64
-133 40 -59 64
-137 41 -60 72
-139 42 -59 72
-140 42 -58 64
-138 41 -56 72
-140 42 -56 64
-142 42 -55 72
-142 43 -54 64
-145 43 -54 72
-151 45 -55 64
-166 50 -59 64
-167 50 -58 64
-168 50 -57 64
-173 52 -57 64
-179 53 -57 64
-176 53 -55 64
-174 52 -53 64
-185 55 -55 64
-199 59 -57 64
-184 55 -52 64
-197 59 -53 64
-200 60 -52 64
-209 62 -53 64
-214 64 -53 64
-220 66 -53 64
-239 71 -55 64
-229 68 -51 56
-241 72 -52 64
-243 73 -50 56
-238 71 -47 56
-265 79 -50 56
-278 83 -51 56
-302 90 -52 56
-306 91 -51 56
-320 96 -51 56
-358 107 -54 48
-359 107 -51 88
-359 107 -48 96
-384 115 -48 96
-397 119 -47 96
-428 128 -48 48
-439 131 -46 56
-454 136 -44 56
-466 139 -41 48
-471 141 -38 96
-509 152 -37 104
-536 160 -35 88
-532 159 -31 80
-537 161 -27 96
-547 163 -23 96
-565 169 -19 48
-570 170 -15 56
-571 171 -11 56
-571 171 -7 56
-576 172 -2 56
-574 172 3 56
-574 172 7 56
-573 171 11 56
-578 173 16 56
-574 172 20 56
-568 170 25 56
-570 171 29 56
-571 171 34 56
-572 171 38 56
-577 173 43 56
-574 172 47 56
-570 170 51 56
-573 171 56 56
-572 171 60 56
-570 170 64 56
-573 171 69 56
-570 171 74 56
-572 171 79 48
-576 172 83 56
-574 172 88 56
-568 170 91 56
-572 171 97 56
-571 171 101 48
-574 172 106 48
-572 171 110 56
-574 172 115 56
-570 171 119 56
-565 169 123 48
-568 170 128 56
-569 170 132 56
-569 170 137 48
-866 259 216 48
-832 249 215 80
-862 258 230 40
-521 156 147 64
-898 269 261 48
-886 265 265 56
-910 272 279 48
-971 290 306 48
-953 285 309 40
-921 275 307 40
-927 277 316 40
-817 244 293 56
-803 240 295 64
-815 244 306 48
-811 242 312 56
-807 241 317 40
-768 230 309 56
-772 231 317 56
-732 219 308 48
-738 221 317 48
-797 238 350 40
-988 295 460 48
-978 293 465 40
-991 296 481 32
-962 288 476 48
-967 289 487 40
-985 295 506 64
-949 284 497 56
-950 284 506 56
-935 280 508 72
-919 275 509 64
-899 269 506 56
-871 260 499 56
-861 257 503 56
-901 269 535 32
-897 268 542 40
-978 293 623 32
-850 254 597 32
-833 249 595 40
-826 247 598 56
-804 240 592 48
-802 240 600 72
-795 238 604 56
-784 234 606 64
-784 235 615 64
-783 234 623 72
-774 232 626 72
-769 230 631 56
-760 227 634 40
-370 111 424 40
-1862 557 2775 24
-706 211 1932 24
-321 96 1637 24
-8 2 367 24
112 -34 1062 40
306 -92 1364 16
192 -57 472 24
819 -245 1637 16
669 -200 1107 32
787 -235 760 16
2772 -829 1518 16
298 -89 130 16
1499 -448 546 48
1519 -454 513 32
1557 -466 512 48
2459 -735 604 32
1478 -442 279 64
1434 -429 235 32
1427 -427 211 56
1361 -407 190 64
1345 -402 157 40
1391 -416 140 56
1379 -412 74 32
267 -80 10 64
287 -86 9 88
285 -85 7 48
293 -88 4 96
299 -89 2 88
302 -90 0 80
311 -93 -3 56
309 -93 -5 64
305 -91 -7 88
299 -89 -10 80
312 -93 -12 56
295 -88 -14 56
288 -86 -16 48
283 -85 -18 88
271 -81 -19 104
273 -82 -22 48
271 -81 -24 48
258 -77 -24 104
247 -74 -25 80
247 -74 -27 72
220 -66 -26 88
205 -61 -26 48
206 -62 -27 48
209 -62 -29 56
218 -65 -33 56
225 -67 -35 56
216 -65 -36 56
227 -68 -39 48
215 -64 -39 56
209 -63 -40 56
198 -59 -39 64
190 -57 -39 64
183 -55 -39 64
180 -54 -40 64
180 -54 -41 64
186 -56 -44 64
187 -56 -46 64
183 -55 -46 64
183 -55 -48 64
180 -54 -49 64
177 -53 -49 64
177 -53 -51 64
173 -52 -51 64
175 -52 -53 64
173 -52 -54 64
173 -52 -55 64
167 -50 -55 64
160 -48 -54 64
162 -48 -56 64
160 -48 -57 64
155 -46 -56 64
150 -45 -56 72
152 -46 -58 64
142 -42 -55 64
149 -44 -59 64
147 -44 -60 64
138 -41 -57 64
140 -42 -60 64
134 -40 -58 64
140 -42 -62 64
136 -41 -62 64
131 -39 -60 64
137 -41 -65 64
123 -37 -59 64
119 -36 -58 64
113 -34 -57 64
111 -33 -57 64
109 -33 -57 64
107 -32 -57 64
108 -32 -58 64
107 -32 -59 64
105 -31 -58 64
103 -31 -58 64
102 -31 -59 64
103 -31 -60 64
103 -31 -62 64
101 -30 -61 64
101 -30 -62 64
100 -30 -63 64
100 -30 -64 64
99 -30 -65 64
95 -29 -63 64
96 -29 -65 64
93 -28 -64 64
93 -28 -65 64
94 -28 -67 64
92 -28 -66 64
89 -27 -65 64
91 -27 -67 64
93 -28 -70 64
90 -27 -69 64
85 -26 -66 64
85 -25 -67 64
90 -27 -72 64
84 -25 -68 64
80 -24 -67 64
80 -24 -67 64
76 -23 -65 64
79 -24 -68 64
76 -23 -67 64
76 -23 -68 64
75 -22 -68 64
73 -22 -68 64
74 -22 -69 64
72 -22 -69 64
72 -21 -69 64
71 -21 -70 64
72 -21 -71 64
70 -21 -70 64
70 -21 -71 64
69 -21 -71 64
-73 22 -75 64
-72 22 -73 64
-75 23 -75 64
-74 23 -73 64
-74 23 -72 56
-72 22 -69 64
-78 24 -74 64
-80 25 -74 64
-79 24 -72 64
-81 25 -73 64
-80 25 -71 64
-82 25 -72 64
-79 24 -68 64
-82 25 -70 64
-83 26 -69 64
-81 25 -67 64
-84 26 -68 64
-84 26 -67 64
-87 27 -68 64
-88 27 -68 64
-86 26 -65 64
-90 28 -67 64
-91 28 -67 64
-90 28 -65 64
-92 28 -66 64
-95 29 -67 64
-93 29 -64 64
-95 29 -64 64
-96 29 -64 64
-95 29 -63 64
-97 30 -63 64
-100 31 -63 64
-102 31 -64 64
-102 31 -63 64
-105 32 -64 72
-106 33 -63 72
-106 33 -62 64
-106 32 -61 72
-106 33 -60 64
-107 33 -60 64
-111 34 -60 72
-117 36 -63 72
-123 38 -65 72
-123 38 -64 72
-121 37 -61 72
-122 37 -60 72
-120 37 -58 64
-125 39 -60 64
-131 40 -61 72
-131 40 -60 64
-133 41 -60 64
-136 42 -60 72
-138 42 -60 72
-138 43 -58 72
-139 43 -57 64
-137 42 -56 64
-140 43 -55 64
-143 44 -55 72
-146 45 -55 64
-147 45 -54 64
-157 48 -57 64
-165 51 -58 64
-167 51 -57 72
-170 52 -57 64
-173 53 -57 64
-177 54 -56 64
-175 54 -54 64
-177 55 -53 64
-178 55 -52 64
-181 56 -51 64
-181 56 -50 64
-194 60 -52 64
-203 63 -53 64
-217 67 -54 64
-224 69 -54 64
-234 72 -55 64
-238 73 -54 64
-241 74 -53 64
-245 75 -51 64
-249 77 -50 64
-258 80 -50 64
-276 85 -51 64
-286 88 -51 56
-293 90 -50 56
-293 90 -47 56
-316 97 -49 48
-353 109 -52 88
-370 114 -51 96
-395 121 -52 56
-416 128 -51 56
-431 133 -50 56
-442 136 -48 56
-446 137 -44 56
-467 144 -43 56
-482 148 -40 56
-504 155 -39 96
-538 165 -37 96
-541 166 -33 88
-545 168 -29 96
-546 168 -24 104
-567 175 -21 56
-575 177 -17 56
-573 176 -12 56
-572 176 -8 56
-570 175 -3 56
-575 177 1 56
-573 176 5 56
-578 178 10 56
-572 176 14 56
-576 177 19 56
-573 176 24 56
-578 178 28 56
-572 176 32 56
-570 176 37 56
-574 177 41 56
-577 177 46 56
-576 177 51 56
-575 177 55 56
-575 177 59 48
-571 176 63 56
-575 177 69 56
-576 177 73 56
-573 176 77 56
-572 176 81 48
-577 178 87 56
-575 177 91 56
-577 177 96 56
-572 176 100 56
-570 175 104 56
-572 176 109 56
-570 175 113 56
-569 175 118 56
-574 177 123 48
-572 176 127 56
-571 176 132 56
-572 176 137 48
-890 274 220 80
-849 261 217 56
-859 264 226 48
-891 274 242 32
-917 282 257 40
-915 281 264 48
-882 271 262 48
-885 272 270 40
-933 287 293 40
-928 286 298 32
-921 283 304 40
-881 271 298 32
-837 258 291 56
-808 249 288 56
-800 246 292 80
-805 248 300 72
-818 252 313 72
-808 249 316 56
-789 243 316 40
-749 231 307 64
-732 225 307 64
-725 223 311 72
-708 218 310 32
-1001 308 476 40
-1008 310 489 48
-942 290 465 48
-927 285 466 48
-953 293 489 48
-948 292 496 48
-937 288 499 56
-934 287 507 56
-916 282 505 64
-901 277 506 56
-861 265 493 64
-849 261 495 48
-889 273 527 40
-868 267 525 48
-899 277 551 40
-905 278 564 64
-926 285 598 48
-861 265 566 40
-831 256 555 48
-849 261 575 40
-841 259 580 40
-855 263 599 40
-831 256 592 56
-812 250 588 72
-806 248 593 56
-808 248 603 72
-798 245 605 72
-789 243 608 64
-784 241 614 48
-778 239 619 64
-778 239 628 64
-768 236 629 72
-760 234 632 64
-775 239 655 56
-2109 649 2489 32
-2276 700 3175 16
-1302 400 2169 24
-1304 401 3262 24
-280 86 901 16
-206 63 912 16
-136 42 929 32
363 -112 1437 24
878 -270 2533 32
725 -223 1114 24
1521 -468 560 56
1526 -470 534 48
1452 -447 396 40
1448 -445 289 48
3643 -1121 698 24
1371 -422 218 56
1418 -436 215 56
1334 -410 170 32
1330 -409 158 40
1322 -407 147 40
1375 -423 132 64
1328 -408 117 56
1340 -412 107 40
257 -79 10 64
286 -88 9 88
279 -86 7 96
275 -85 5 56
293 -90 3 56
302 -93 0 88
296 -91 -2 40
303 -93 -4 56
318 -98 -7 104
304 -93 -9 48
305 -94 -11 72
814 -250 -36 64
290 -89 -15 64
281 -86 -17 88
263 -81 -18 48
259 -80 -20 96
265 -81 -22 56
248 -76 -23 96
245 -76 -24 72
262 -81 -28 64
253 -78 -29 64
248 -76 -30 80
223 -69 -29 88
201 -62 -28 56
201 -62 -30 56
207 -64 -32 56
203 -62 -33 56
212 -65 -36 56
204 -63 -37 56
199 -61 -37 56
200 -62 -39 64
191 -59 -39 64
185 -57 -39 64
182 -56 -40 64
182 -56 -41 64
182 -56 -43 64
181 -56 -44 64
180 -55 -45 72
181 -56 -47 64
183 -56 -49 64
177 -55 -49 64
180 -55 -51 64
180 -56 -53 64
177 -55 -53 64
174 -54 -54 64
172 -53 -55 64
170 -52 -55 64
161 -50 -54 64
161 -49 -55 64
158 -49 -55 64
155 -48 -56 64
151 -46 -56 64
147 -45 -56 64
143 -44 -55 64
150 -46 -59 64
144 -44 -58 64
141 -43 -58 64
140 -43 -59 64
134 -41 -58 64
130 -40 -57 64
130 -40 -58 64
122 -37 -56 64
128 -39 -60 64
128 -39 -61 64
119 -37 -58 64
116 -36 -57 64
112 -34 -57 64
113 -35 -58 64
109 -34 -57 64
111 -34 -59 64
111 -34 -60 64
107 -33 -59 64
107 -33 -60 64
106 -33 -61 64
107 -33 -63 64
106 -33 -63 64
103 -32 -62 64
105 -32 -64 64
104 -32 -65 64
104 -32 -66 64
102 -31 -66 64
95 -29 -63 64
94 -29 -63 64
91 -28 -62 64
95 -29 -66 64
95 -29 -67 64
93 -29 -67 64
89 -27 -65 64
91 -28 -68 64
94 -29 -71 64
95 -29 -72 64
88 -27 -68 64
85 -26 -67 64
89 -27 -71 64
82 -25 -66 64
81 -25 -67 64
84 -26 -70 64
82 -25 -69 64
80 -25 -69 64
80 -25 -70 64
76 -24 -68 64
77 -24 -69 64
75 -23 -69 64
74 -23 -69 64
74 -23 -70 64
73 -23 -70 64
72 -22 -70 64
73 -22 -72 64
71 -22 -71 64
71 -22 -72 64
71 -22 -73 64
-73 23 -75 64
-73 23 -75 64
-74 23 -74 64
-74 23 -73 64
-74 23 -72 64
-73 23 -70 56
-76 24 -72 64
-78 25 -73 64
-78 25 -72 64
-79 25 -72 64
-81 25 -72 64
-80 25 -70 64
-79 25 -68 64
-81 26 -69 64
-82 26 -69 64
-82 26 -68 64
-81 25 -66 64
-83 26 -67 64
-84 26 -66 64
-87 27 -67 64
-88 28 -67 64
-87 27 -65 64
-90 29 -67 64
-87 27 -63 64
-89 28 -64 64
-92 29 -65 64
-92 29 -64 64
-95 30 -65 64
-97 31 -65 64
-98 31 -65 64
-98 31 -64 64
-100 32 -64 64
-101 32 -63 64
-103 33 -64 64
-104 33 -63 64
-105 33 -63 72
-104 33 -61 64
-105 33 -61 72
-105 33 -60 64
-107 34 -60 64
-111 35 -61 72
-115 36 -62 72
-121 38 -64 64
-126 40 -65 64
-120 38 -61 64
-119 38 -59 64
-118 37 -58 64
-125 39 -60 72
-128 40 -60 64
-130 41 -60 64
-134 42 -61 64
-134 42 -60 72
-136 43 -59 72
-136 43 -58 72
-137 43 -57 72
-138 44 -56 72
-139 44 -56 72
-139 44 -54 72
-142 45 -54 64
-146 46 -55 64
-150 48 -55 64
-159 50 -57 64
-163 52 -57 64
-166 53 -56 64
-175 55 -58 64
-174 55 -56 64
-175 55 -55 64
-175 55 -53 64
-172 54 -51 64
-177 56 -51 64
-183 58 -51 64
-187 59 -50 64
-202 64 -53 64
-216 68 -55 64
-224 71 -55 56
-235 74 -56 64
-240 76 -55 64
-239 76 -53 64
-248 78 -53 64
-243 77 -50 64
-259 82 -51 64
-275 87 -52 64
-275 87 -50 56
-290 92 -50 56
-296 94 -49 48
-300 95 -47 48
-358 113 -53 56
-384 121 -54 64
-399 126 -53 56
-408 129 -51 56
-424 134 -50 56
-435 138 -48 56
-436 138 -44 56
-450 142 -42 56
-473 150 -41 96
-511 161 -40 96
-531 168 -38 88
-542 172 -34 104
-554 175 -30 48
-562 178 -27 56
-571 180 -23 48
-574 181 -18 56
-575 182 -14 56
-573 181 -9 56
-575 182 -5 56
-574 182 -1 56
-580 183 4 56
-579 183 9 56
-578 183 13 56
-576 182 18 56
-575 182 22 56
-580 183 27 64
-578 183 31 48
-577 182 36 56
-575 182 40 56
-574 182 44 56
-574 182 49 56
-577 183 54 56
-574 182 58 56
-579 183 63 56
-576 182 67 56
-575 182 71 56
-578 183 76 56
-576 182 81 56
-576 182 86 56
-572 181 90 56
-578 183 95 48
-570 180 98 56
-570 180 103 56
-576 182 109 56
-576 182 113 56
-573 181 117 56
-573 181 122 56
-569 180 126 56
-581 184 133 56
-573 181 136 48
-860 272 210 40
-878 278 223 48
-864 273 227 48
-888 281 241 48
-891 282 249 48
-900 285 260 40
-869 275 257 56
-865 274 263 40
-907 287 284 40
-895 283 296 64
-815 258 277 56
-806 255 280 64
-795 252 283 80
-797 252 291 72
-790 250 296 72
-786 249 301 56
-794 251 311 64
-782 247 313 72
-770 244 315 64
-744 235 311 80
-736 233 315 72
-710 225 310 64
-722 228 322 40
-1494 472 693 56
-1009 319 488 32
-946 299 467 32
-909 287 457 64
-905 286 463 40
-944 299 492 48
-938 297 499 48
-925 293 501 48
-938 297 518 48
-899 284 505 56
-853 270 487 64
-855 270 497 64
-854 270 505 48
-877 277 528 56
-881 279 540 64
-869 275 542 56
-882 279 559 56
-852 270 549 48
-851 269 557 56
-834 264 556 56
-845 267 573 56
-825 261 568 56
-844 267 590 32
-836 264 594 48
-823 260 595 64
-820 259 602 56
-814 257 608 56
-795 251 603 56
-797 252 613 40
-778 246 608 40
-775 245 615 64
-776 245 626 64
-759 240 622 56
-766 242 637 64
-762 241 642 40
-758 240 650 56
-128 41 232 16
-200 63 1091 24
-73 23 2821 16
138 -44 2697 16
767 -243 3648 24
988 -312 3349 16
934 -295 2544 40
1454 -460 3009 24
2410 -762 2393 32
1901 -601 1600 24
572 -181 398 24
174 -55 98 24
1552 -491 603 56
1550 -490 588 32
1530 -484 527 56
1495 -473 489 40
1471 -465 395 32
1167 -369 284 56
1240 -392 272 48
1223 -387 238 32
1408 -445 229 48
1405 -444 205 56
1375 -435 190 40
1306 -413 161 72
1337 -423 154 56
1401 -443 150 64
1345 -425 111 40
1337 -423 101 32
279 -88 17 96
282 -89 15 56
285 -90 12 56
285 -90 10 96
285 -90 8 80
288 -91 6 88
276 -87 3 48
301 -95 1 88
290 -92 -1 72
296 -93 -3 72
324 -103 -6 88
317 -100 -9 80
306 -97 -11 48
827 -262 -36 40
827 -261 -42 40
255 -81 -15 96
252 -80 -17 48
258 -82 -19 48
260 -82 -21 48
256 -81 -23 56
243 -77 -24 56
283 -89 -30 80
303 -96 -34 72
290 -92 -35 88
290 -92 -37 88
243 -77 -33 80
202 -64 -29 48
192 -61 -29 56
193 -61 -31 64
198 -63 -33 56
197 -62 -35 56
185 -59 -34 56
190 -60 -37 64
194 -61 -39 64
196 -62 -41 64
191 -61 -42 64
186 -59 -42 64
186 -59 -43 64
183 -58 -44 64
183 -58 -46 64
185 -59 -48 64
185 -58 -49 64
179 -57 -49 64
181 -57 -51 64
182 -58 -53 64
180 -57 -54 64
178 -56 -55 64
173 -55 -55 64
173 -55 -56 64
163 -51 -54 64
160 -50 -55 64
156 -49 -55 64
149 -47 -53 64
148 -47 -54 64
145 -46 -54 64
139 -44 -53 64
146 -46 -57 64
139 -44 -56 64
140 -44 -58 64
132 -42 -56 64
138 -44 -59 64
128 -41 -56 64
123 -39 -55 64
120 -38 -55 64
116 -37 -54 64
119 -38 -57 64
113 -36 -55 64
113 -36 -56 64
113 -36 -57 64
112 -35 -58 64
110 -35 -58 64
114 -36 -61 64
109 -35 -59 64
106 -34 -59 64
108 -34 -61 64
112 -35 -64 64
107 -34 -63 64
104 -33 -62 64
103 -33 -62 64
104 -33 -64 72
104 -33 -65 72
104 -33 -66 64
103 -33 -67 64
98 -31 -64 64
94 -30 -63 64
95 -30 -65 64
97 -31 -67 64
96 -30 -67 64
91 -29 -65 64
89 -28 -64 64
88 -28 -65 64
90 -28 -67 64
90 -29 -69 64
86 -27 -67 64
87 -28 -68 64
83 -26 -67 64
85 -27 -68 64
83 -26 -69 64
82 -26 -69 64
82 -26 -69 64
81 -26 -70 64
81 -26 -71 64
78 -25 -69 64
76 -24 -68 64
72 -23 -66 64
74 -23 -69 64
74 -23 -70 64
72 -23 -70 64
73 -23 -71 64
73 -23 -72 64
72 -23 -73 64
71 -23 -72 64
70 -22 -72 64
-69 23 -73 64
-72 23 -74 64
-70 23 -71 64
-71 23 -71 64
-73 24 -72 56
-73 24 -71 64
-70 23 -67 56
-74 24 -70 64
-74 24 -69 64
-77 25 -70 64
-79 26 -72 64
-79 26 -70 64
-79 26 -69 64
-80 26 -69 64
-81 26 -69 64
-82 27 -68 64
-82 27 -67 64
-83 27 -67 64
-82 27 -65 64
-85 28 -67 64
-87 28 -67 64
-86 28 -66 64
-88 29 -66 64
-87 28 -64 64
-87 28 -63 64
-88 29 -63 64
-89 29 -63 64
-93 30 -64 64
-95 31 -65 64
-98 32 -66 64
-100 32 -66 64
-99 32 -64 64
-100 32 -64 64
-103 33 -65 64
-104 34 -64 64
-104 34 -63 64
-103 34 -62 72
-103 33 -60 64
-104 34 -60 72
-108 35 -61 64
-111 36 -62 72
-112 36 -61 72
-117 38 -63 72
-120 39 -63 64
-122 40 -63 64
-118 38 -60 64
-119 39 -59 72
-120 39 -58 64
-124 40 -59 64
-125 41 -59 64
-132 43 -61 72
-133 43 -60 72
-132 43 -58 64
-133 43 -57 64
-137 44 -58 72
-137 45 -57 72
-138 45 -56 64
-139 45 -55 64
-139 45 -54 72
-143 47 -54 64
-153 50 -57 64
-158 51 -57 64
-161 52 -56 64
-165 54 -57 64
-169 55 -56 64
-173 56 -57 64
-177 57 -56 64
-177 58 -55 64
-176 57 -53 64
-175 57 -51 64
-191 62 -54 64
-190 62 -52 64
-197 64 -53 64
-215 70 -56 64
-227 74 -57 64
-234 76 -56 64
-243 79 -57 64
-237 77 -54 64
-236 77 -51 64
-239 78 -50 64
-246 80 -49 56
-269 88 -52 64
-275 89 -51 56
-282 92 -50 56
-306 99 -52 56
-313 102 -50 48
-355 115 -54 48
-381 124 -55 56
-388 126 -53 56
-398 129 -51 56
-413 134 -50 56
-431 140 -49 56
-432 141 -46 56
-417 135 -41 48
-457 148 -41 56
-491 160 -41 48
-527 171 -39 96
-526 171 -35 96
-534 173 -31 56
-549 178 -28 48
-560 182 -24 48
-561 182 -20 48
-573 186 -16 48
-577 188 -11 48
-581 189 -7 56
-575 187 -3 56
-583 189 2 56
-582 189 7 48
-572 186 11 56
-577 188 16 56
-583 189 21 56
-578 188 25 56
-578 188 29 48
-583 189 34 56
-582 189 39 56
-578 188 43 56
-577 188 47 56
-575 187 52 48
-578 188 56 48
-575 187 61 48
-578 188 66 56
-577 188 70 56
-572 186 75 56
-576 187 80 48
-577 188 84 56
-577 187 89 56
-577 188 93 56
-576 187 98 56
-579 188 103 56
-571 186 107 56
-575 187 111 56
-573 186 116 56
-578 188 122 56
-575 187 126 56
-574 186 130 56
-574 186 134 56
-576 187 140 32
-907 295 228 48
-873 284 227 56
-875 284 235 64
-882 287 243 48
-897 291 255 48
-890 289 261 48
-868 282 262 48
-891 290 284 56
-906 294 296 64
-801 260 269 56
-794 258 273 72
-792 257 280 80
-799 260 289 72
-794 258 295 88
-780 254 296 64
-776 252 301 64
-763 248 303 72
-774 251 314 64
-746 242 310 64
-733 238 310 72
-712 231 308 72
-707 230 313 72
-689 224 311 40
-1070 348 513 32
-1020 331 499 32
-937 304 467 48
-914 297 465 40
-900 292 467 40
-917 298 485 40
-931 302 500 48
-922 300 505 48
-900 292 502 64
-862 280 489 64
-857 279 496 64
-863 280 508 56
-876 284 523 56
-874 284 532 64
-861 280 533 56
-859 279 541 56
-855 278 548 56
-851 277 555 56
-861 280 570 56
-849 276 571 64
-835 271 572 48
-834 271 580 64
-852 277 603 48
-831 270 598 56
-814 265 594 64
-816 265 605 64
-805 261 606 56
-814 265 623 48
-819 266 637 64
-783 254 619 40
-766 249 614 48
-759 247 618 40
-765 248 632 48
-756 245 633 32
-740 240 630 64
-737 239 637 56
-668 217 2218 24
-164 53 2879 16
877 -285 3367 24
1557 -506 2924 16
2331 -757 1455 24
2819 -916 1134 32
1526 -496 519 56
2011 -654 599 24
1452 -472 395 32
1184 -385 283 32
1183 -385 273 64
1241 -403 276 32
1250 -406 248 48
1198 -389 228 64
1395 -453 198 40
1307 -425 175 32
1352 -439 170 32
1398 -454 154 72
1411 -459 145 32
1339 -435 126 40
1342 -436 116 48
1368 -444 107 64
274 -89 17 72
289 -94 16 48
293 -95 13 48
284 -92 11 88
285 -93 9 88
284 -92 7 56
281 -91 4 88
294 -95 2 88
300 -97 0 104
289 -94 -3 64
303 -99 -5 48
300 -98 -7 48
276 -90 -11 64
251 -81 -14 56
253 -82 -16 56
258 -84 -18 104
273 -89 -21 96
268 -87 -23 48
258 -84 -24 56
261 -85 -27 56
275 -89 -30 104
326 -106 -38 72
304 -99 -38 88
287 -93 -38 96
254 -83 -36 88
186 -61 -28 48
184 -60 -29 56
196 -64 -32 56
195 -63 -34 64
187 -61 -34 64
184 -60 -35 64
183 -60 -36 64
197 -64 -40 64
195 -63 -42 64
184 -60 -41 64
188 -61 -43 64
185 -60 -44 64
185 -60 -46 64
182 -59 -46 64
182 -59 -48 64
182 -59 -49 64
173 -56 -48 64
172 -56 -50 64
176 -57 -52 64
174 -57 -53 64
170 -55 -53 64
170 -55 -55 64
165 -54 -55 64
163 -53 -55 64
153 -50 -53 64
144 -47 -51 64
146 -48 -53 64
144 -47 -54 64
134 -44 -51 64
137 -45 -54 64
138 -45 -55 64
137 -44 -56 64
131 -42 -55 64
134 -44 -57 64
126 -41 -55 64
119 -39 -53 64
114 -37 -52 64
111 -36 -52 64
111 -36 -53 64
111 -36 -54 64
109 -36 -54 64
111 -36 -56 64
109 -35 -56 64
110 -36 -57 64
109 -35 -58 64
111 -36 -60 64
107 -35 -59 64
107 -35 -60 64
109 -36 -63 64
106 -34 -61 64
104 -34 -61 64
101 -33 -61 64
104 -34 -63 64
102 -33 -64 64
103 -33 -65 72
102 -33 -66 72
102 -33 -67 64
96 -31 -64 64
96 -31 -65 64
97 -32 -67 64
97 -32 -68 64
94 -30 -67 64
87 -28 -63 64
90 -29 -66 64
87 -28 -65 64
88 -29 -67 64
84 -27 -64 64
86 -28 -68 64
87 -28 -69 64
85 -28 -69 64
86 -28 -71 64
84 -27 -70 64
83 -27 -70 64
81 -26 -70 64
79 -26 -69 64
79 -26 -70 64
74 -24 -66 64
72 -24 -66 64
76 -25 -70 64
75 -24 -71 64
73 -24 -69 64
72 -23 -70 64
74 -24 -72 64
72 -23 -72 64
71 -23 -71 64
70 -23 -72 64
71 -23 -74 64
-71 24 -74 56
-73 24 -74 64
-72 24 -73 56
-71 24 -71 64
-72 24 -71 64
-72 24 -70 56
-74 25 -70 56
-74 25 -69 64
-76 25 -70 64
-79 26 -72 64
-80 27 -71 64
-79 26 -70 64
-79 26 -69 64
-80 27 -69 64
-84 28 -71 64
-84 28 -69 64
-81 27 -66 64
-82 27 -66 64
-83 28 -66 64
-87 29 -68 64
-87 29 -67 64
-88 29 -67 64
-87 29 -65 64
-87 29 -64 64
-88 29 -63 64
-91 30 -65 64
-93 31 -65 64
-95 32 -66 64
-96 32 -65 64
-99 33 -66 64
-102 34 -67 64
-101 34 -65 64
-101 34 -64 64
-105 35 -66 64
-102 34 -62 64
-104 35 -62 64
-104 35 -62 64
-106 35 -61 72
-108 36 -62 72
-110 37 -61 72
-113 38 -62 64
-112 37 -60 64
-114 38 -61 64
-117 39 -61 64
-118 39 -60 64
-123 41 -62 64
-121 40 -59 72
-123 41 -59 64
-122 41 -57 64
-130 43 -60 64
-132 44 -60 64
-130 43 -58 64
-132 44 -57 64
-136 45 -58 64
-137 46 -57 64
-135 45 -55 64
-135 45 -54 64
-140 47 -54 64
-145 48 -55 64
-153 51 -57 64
-155 52 -56 64
-160 53 -57 64
-162 54 -56 64
-166 55 -56 64
-170 57 -56 64
-173 58 -55 64
-179 60 -56 64
-176 59 -53 64
-180 60 -53 64
-187 62 -53 64
-190 63 -52 64
-201 67 -54 64
-216 72 -56 64
-224 75 -56 64
-230 77 -56 64
-233 78 -55 64
-233 78 -53 64
-224 75 -49 56
-236 79 -50 56
-243 81 -49 56
-259 87 -50 56
-277 92 -51 56
-278 93 -49 56
-316 105 -54 48
-320 107 -52 56
-359 120 -55 56
-373 124 -54 56
-377 126 -52 56
-383 128 -50 56
-406 135 -50 56
-421 141 -49 56
-424 141 -46 56
-413 138 -41 56
-438 146 -40 96
-480 160 -40 48
-507 169 -39 96
-540 180 -37 48
-535 179 -33 96
-549 183 -29 96
-559 187 -25 56
-565 189 -21 56
-572 191 -16 48
-578 193 -12 56
-580 193 -7 48
-580 193 -3 56
-578 193 2 56
-581 194 7 56
-580 193 11 56
-586 196 15 56
-581 194 20 48
-579 193 25 56
-585 195 30 56
-579 193 33 48
-579 193 38 56
-575 192 42 56
-584 195 48 56
-578 193 52 56
-579 193 56 56
-580 193 61 56
-579 193 66 48
-579 193 70 56
-587 196 76 56
-581 194 80 56
-577 193 83 48
-579 193 89 56
-579 193 93 48
-579 193 98 56
-575 192 102 56
-580 194 107 48
-576 192 111 48
-580 194 117 56
-578 193 121 56
-578 193 126 56
-574 192 129 56
-574 192 134 56
-888 296 223 48
-872 291 226 48
-894 298 238 32
-940 314 259 40
-922 307 261 48
-922 308 270 48
-913 305 275 40
-876 292 279 56
-913 305 299 40
-816 272 274 48
-806 269 277 56
-810 270 286 64
-799 266 289 64
-804 268 298 72
-789 263 300 80
-767 256 298 80
-754 251 299 72
-743 248 302 72
-743 248 309 80
-725 242 308 64
-710 237 308 72
-697 233 309 72
-705 235 319 64
-669 223 309 56
-1065 355 501 56
-1088 363 523 48
-1020 340 500 32
-960 320 480 40
-930 310 473 40
-900 300 466 32
-907 303 480 48
-935 312 504 40
-917 306 503 56
-918 306 513 48
-861 287 489 64
-851 284 492 56
-855 285 503 64
-867 289 520 72
-868 290 529 64
-875 292 544 64
-865 289 545 56
-854 285 548 56
-862 288 563 64
-844 281 560 64
-852 284 575 48
-824 275 566 64
-845 282 588 64
-851 284 602 64
-822 274 590 64
-823 275 600 72
-812 271 602 64
-823 274 620 64
-820 273 628 48
-826 275 643 48
-577 192 717 24
-1071 357 2884 32
-430 143 1512 24
-125 42 1155 24
606 -202 1069 24
493 -164 596 32
2943 -982 2078 24
583 -194 268 16
1542 -515 582 56
2257 -753 814 40
1547 -516 530 48
3685 -1229 951 24
1169 -390 282 72
1162 -388 270 32
1205 -402 271 56
1230 -410 257 32
1239 -414 248 40
1227 -409 235 64
1244 -415 220 64
1264 -422 212 56
1270 -424 203 64
1306 -436 198 48
1374 -458 197 48
1357 -453 184 64
1299 -434 167 40
1351 -451 131 64
1406 -469 113 48
277 -92 16 88
279 -93 13 56
275 -92 11 72
284 -95 9 88
281 -94 7 56
275 -92 5 96
281 -94 3 56
291 -97 0 88
283 -94 -2 88
292 -97 -4 72
284 -95 -6 88
279 -93 -8 80
272 -91 -10 88
277 -92 -12 104
261 -87 -14 56
257 -86 -16 56
257 -86 -18 56
274 -92 -21 48
282 -94 -24 88
268 -90 -25 96
268 -89 -27 48
266 -89 -29 56
282 -94 -33 96
303 -101 -37 88
274 -91 -36 104
278 -93 -39 96
240 -80 -35 72
204 -68 -32 48
207 -69 -34 96
213 -71 -36 56
201 -67 -36 56
194 -65 -37 56
180 -60 -35 64
188 -63 -38 64
183 -61 -39 64
179 -60 -40 64
182 -61 -42 64
189 -63 -45 64
185 -62 -45 64
183 -61 -46 64
183 -61 -48 64
182 -61 -49 64
168 -56 -47 64
162 -54 -46 64
172 -57 -51 64
170 -57 -52 64
166 -55 -52 64
169 -56 -54 64
167 -56 -55 64
165 -55 -56 64
154 -51 -53 64
143 -48 -51 64
140 -47 -51 64
144 -48 -54 64
135 -45 -51 64
138 -46 -54 64
138 -46 -55 64
134 -45 -55 64
133 -44 -56 64
128 -43 -55 64
117 -39 -51 64
116 -39 -52 64
112 -37 -51 64
110 -37 -51 64
112 -38 -53 64
111 -37 -54 64
109 -36 -54 64
109 -36 -55 64
108 -36 -55 64
109 -36 -57 64
110 -37 -59 64
111 -37 -60 64
108 -36 -59 64
107 -36 -60 64
107 -36 -61 64
105 -35 -61 64
102 -34 -60 64
103 -34 -62 64
102 -34 -63 64
103 -34 -64 64
102 -34 -65 64
104 -35 -67 64
101 -34 -66 64
98 -33 -65 64
98 -33 -67 64
95 -32 -66 64
94 -31 -66 64
92 -31 -66 64
88 -29 -63 64
86 -29 -63 64
84 -28 -63 64
86 -29 -66 64
86 -29 -67 64
87 -29 -68 64
84 -28 -67 64
85 -28 -69 64
84 -28 -69 64
83 -28 -70 64
82 -27 -70 64
81 -27 -70 64
78 -26 -68 64
78 -26 -69 64
73 -24 -66 64
72 -24 -66 64
75 -25 -70 64
75 -25 -71 64
74 -25 -71 64
75 -25 -72 64
74 -25 -73 64
74 -25 -74 64
70 -23 -71 64
72 -24 -74 64
71 -24 -75 64
-67 23 -70 56
-68 23 -71 56
-70 24 -71 64
-70 24 -70 56
-72 25 -71 64
-71 24 -69 56
-72 25 -69 64
-74 25 -70 64
-77 26 -71 64
-77 26 -71 64
-78 27 -71 64
-77 27 -69 64
-79 27 -69 64
-79 27 -68 64
-83 29 -71 64
-83 28 -69 64
-84 29 -69 64
-83 29 -68 64
-85 29 -68 64
-85 29 -67 64
-86 30 -67 64
-86 29 -65 64
-88 30 -66 64
-88 30 -65 64
-89 30 -65 64
-93 32 -67 64
-91 31 -64 64
-92 31 -63 64
-92 32 -63 64
-97 33 -65 64
-100 34 -66 64
-102 35 -66 72
-100 34 -64 64
-102 35 -64 64
-100 34 -61 64
-103 35 -63 64
-104 36 -62 64
-108 37 -63 64
-108 37 -62 72
-109 37 -62 64
-107 37 -59 64
-109 37 -59 64
-111 38 -60 64
-116 40 -61 64
-119 41 -61 72
-116 40 -59 72
-120 41 -59 64
-125 43 -60 72
-123 42 -59 64
-127 44 -59 64
-129 44 -59 64
-129 44 -58 64
-130 45 -57 64
-132 45 -57 64
-135 46 -57 64
-135 46 -55 64
-134 46 -54 64
-136 46 -53 64
-144 49 -55 64
-152 52 -57 64
-151 52 -55 64
-158 54 -56 64
-164 56 -57 64
-164 56 -56 72
-166 57 -55 72
-169 58 -55 64
-174 60 -55 64
-177 61 -54 64
-180 62 -54 64
-180 62 -52 64
-185 63 -52 64
-189 65 -51 64
-205 70 -54 64
-219 75 -56 64
-226 77 -56 64
-220 75 -52 64
-214 73 -49 64
-218 75 -49 56
-229 78 -49 64
-241 83 -50 64
-252 86 -50 56
-271 93 -51 56
-270 93 -49 56
-308 106 -53 56
-331 113 -54 56
-344 118 -53 56
-368 126 -54 56
-374 128 -52 56
-378 130 -50 48
-403 138 -50 56
-422 145 -50 56
-430 147 -47 56
-443 152 -45 56
-437 150 -41 96
-474 162 -41 56
-487 167 -38 48
-533 183 -38 96
-521 178 -32 80
-557 191 -30 96
-571 195 -26 48
-570 195 -22 48
-576 197 -18 56
-572 196 -13 56
-573 196 -9 56
-585 200 -4 56
-580 199 0 56
-587 201 5 56
-583 200 9 56
-575 197 14 56
-583 200 19 56
-581 199 23 56
-581 199 27 56
-584 200 32 56
-583 199 37 56
-585 200 42 56
-583 200 46 56
-582 199 50 56
-585 200 55 56
-581 199 60 48
-579 198 64 56
-579 198 69 56
-582 199 74 56
-581 199 78 56
-584 200 83 56
-583 199 88 48
-579 198 92 56
-579 198 96 56
-584 200 102 56
-578 198 106 56
-573 196 109 56
-579 198 116 48
-576 197 120 56
-576 197 124 56
-575 197 128 56
-581 199 135 56
-571 196 137 56
-904 310 225 32
-975 334 250 56
-961 329 263 40
-977 335 276 48
-948 325 275 32
-933 320 278 40
-930 318 287 32
-885 303 281 48
-834 285 278 48
-789 270 270 48
-807 276 283 64
-785 269 283 56
-791 271 292 72
-791 271 298 72
-758 260 293 64
-752 258 297 72
-745 255 301 80
-735 252 304 80
-748 256 317 64
-724 248 312 64
-731 250 322 64
-728 249 327 56
-735 252 338 56
-1048 359 492 64
-1087 372 520 32
-940 322 469 40
-942 322 477 48
-895 307 462 40
-906 310 476 40
-927 318 497 48
-921 315 503 48
-917 314 510 48
-906 310 513 48
-863 295 496 64
-858 294 503 64
-872 298 520 56
-861 295 523 64
-851 291 526 56
-863 295 542 40
-859 294 548 64
-863 296 561 40
-871 298 575 48
-841 288 565 40
-864 296 590 48
-858 294 596 56
-843 289 594 56
-823 282 590 72
-815 279 593 56
-825 282 610 48
-839 287 631 32
-843 289 645 32
-853 292 661 64
-839 287 661 56
-1324 453 1452 24
-730 250 1658 24
-190 65 1854 32
77 -26 575 24
1232 -422 3202 24
1105 -378 1878 24
1843 -631 2627 24
1054 -361 1267 32
1399 -479 1407 16
1634 -559 1389 16
1705 -584 1219 32
2754 -943 1605 32
2180 -746 796 24
1442 -494 403 40
1280 -438 336 56
1281 -439 328 64
1205 -413 297 40
1164 -398 277 40
1221 -418 241 32
1198 -410 226 32
1275 -437 210 64
1371 -469 192 32
1328 -455 177 32
1399 -479 164 48
1345 -460 124 32
1362 -466 116 56
1419 -486 110 32
291 -100 18 64
267 -92 14 48
267 -92 12 48
272 -93 10 88
281 -96 8 88
263 -90 5 56
263 -90 4 80
270 -92 2 48
281 -96 -1 72
291 -100 -3 96
281 -96 -5 88
274 -94 -7 88
279 -96 -9 80
265 -91 -11 104
262 -90 -13 56
257 -88 -15 64
256 -88 -17 56
257 -88 -19 56
260 -89 -21 56
270 -92 -24 56
278 -95 -27 104
278 -95 -29 104
271 -93 -30 48
271 -93 -33 48
281 -96 -36 104
271 -93 -37 56
270 -92 -39 56
238 -81 -36 96
239 -82 -38 48
234 -80 -39 48
235 -81 -42 56
225 -77 -41 48
203 -69 -39 56
196 -67 -39 64
193 -66 -40 64
189 -65 -41 64
180 -62 -41 64
180 -62 -42 64
184 -63 -45 64
180 -62 -45 64
179 -61 -46 64
182 -62 -48 64
178 -61 -49 64
165 -57 -47 64
163 -56 -48 64
165 -56 -50 64
164 -56 -51 64
164 -56 -52 64
165 -57 -54 64
163 -56 -55 64
160 -55 -55 64
153 -52 -54 64
141 -48 -51 64
144 -49 -53 64
136 -47 -51 64
135 -46 -52 64
136 -47 -54 64
137 -47 -55 64
134 -46 -55 64
130 -44 -55 64
116 -40 -50 64
113 -39 -50 64
118 -41 -53 64
114 -39 -53 64
113 -39 -53 64
111 -38 -53 72
109 -37 -53 64
108 -37 -54 64
107 -37 -55 64
110 -38 -57 64
110 -38 -58 64
107 -37 -58 64
107 -37 -59 64
105 -36 -58 64
104 -36 -59 64
103 -35 -60 64
102 -35 -60 64
100 -34 -60 64
102 -35 -62 64
101 -35 -63 64
101 -34 -64 64
101 -35 -65 64
101 -35 -66 64
99 -34 -66 64
96 -33 -65 64
94 -32 -65 64
92 -32 -64 64
92 -31 -65 64
88 -30 -63 64
89 -31 -65 64
87 -30 -65 64
88 -30 -66 64
90 -31 -69 64
87 -30 -68 64
85 -29 -67 64
81 -28 -65 64
83 -28 -68 64
80 -28 -67 64
79 -27 -67 64
81 -28 -69 64
81 -28 -71 64
78 -27 -69 64
74 -25 -66 64
74 -25 -67 64
74 -25 -68 64
76 -26 -71 64
73 -25 -70 64
73 -25 -70 64
75 -26 -73 64
76 -26 -75 64
73 -25 -74 64
71 -24 -73 64
71 -24 -74 64
-71 25 -75 56
-68 24 -71 56
-68 24 -70 56
-68 24 -69 56
-70 25 -70 64
-72 25 -71 64
-72 25 -69 56
-74 26 -70 64
-75 26 -70 64
-77 27 -72 64
-79 28 -72 64
-78 28 -70 64
-79 28 -70 64
-80 28 -70 64
-81 28 -69 64
-83 29 -70 64
-84 29 -70 64
-82 29 -67 64
-85 30 -68 64
-85 30 -67 64
-85 30 -67 64
-86 30 -66 64
-86 30 -65 64
-86 30 -64 64
-88 31 -64 64
-91 32 -66 64
-94 33 -67 64
-91 32 -64 64
-92 32 -63 64
-95 34 -65 64
-101 36 -68 64
-101 36 -66 64
-102 36 -66 64
-100 35 -64 64
-100 35 -62 64
-101 36 -62 64
-106 37 -64 64
-110 38 -65 64
-111 39 -64 64
-110 39 -63 64
-107 38 -60 64
-109 38 -60 64
-112 39 -60 72
-115 40 -61 64
-121 43 -63 64
-117 41 -60 72
-118 41 -59 64
-122 43 -60 72
-125 44 -60 64
-127 44 -60 64
-127 45 -59 64
-128 45 -58 64
-129 45 -57 64
-133 47 -58 64
-135 47 -57 64
-136 48 -57 64
-137 48 -56 64
-137 48 -54 64
-140 49 -54 64
-150 53 -57 64
-154 54 -57 64
-158 55 -57 64
-160 56 -57 64
-162 57 -56 64
-165 58 -55 64
-165 58 -54 64
-166 58 -53 64
-174 61 -54 64
-176 62 -53 64
-179 63 -52 64
-180 63 -51 64
-183 64 -50 64
-189 67 -51 64
-209 73 -54 64
-220 77 -55 64
-217 76 -53 64
-207 73 -48 64
-216 76 -49 64
-229 81 -50 64
-236 83 -49 64
-246 86 -49 64
-261 92 -50 64
-257 90 -47 56
-283 99 -50 104
-323 114 -54 56
-337 118 -54 56
-352 124 -54 56
-363 127 -52 96
-373 131 -51 104
-378 133 -48 56
-411 144 -49 56
-430 151 -49 48
-441 155 -47 56
-443 156 -44 48
-462 162 -42 48
-479 168 -39 48
-505 177 -37 80
-497 175 -33 88
-536 188 -32 80
-566 199 -29 96
-578 203 -25 48
-574 202 -20 48
-573 201 -15 48
-577 203 -11 48
-582 204 -7 48
-579 203 -2 48
-588 206 3 56
-588 206 7 56
-588 206 12 56
-580 204 16 56
-583 205 21 56
-585 206 26 56
-586 206 31 56
-588 206 35 48
-582 204 39 56
-584 205 44 56
-589 207 49 56
-584 205 53 48
-585 206 58 56
-581 204 62 56
-584 205 67 56
-580 204 71 56
-583 205 77 48
-583 205 81 48
-584 205 86 48
-581 204 90 56
-580 204 95 56
-575 202 99 96
-583 205 105 56
-582 204 109 56
-584 205 114 48
-582 204 118 56
-581 204 123 56
-579 203 128 56
-578 203 132 56
-584 205 138 48
-953 335 241 32
-992 348 260 32
-976 343 264 32
-968 340 269 40
-975 342 279 40
-925 325 273 40
-902 317 274 32
-848 298 273 48
-841 295 278 48
-800 281 270 48
-753 265 261 48
-774 272 275 40
-808 284 295 56
-788 277 295 80
-786 276 300 72
-761 267 298 64
-735 258 294 72
-730 257 299 72
-742 261 311 72
-723 254 309 64
-716 252 313 48
-755 265 337 32
-849 298 386 32
-898 315 417 56
-998 350 474 32
-1064 374 514 40
-1032 362 508 32
-933 328 469 40
-904 317 463 64
-879 309 460 48
-908 319 484 40
-923 324 500 40
-912 320 503 48
-921 323 518 56
-897 315 514 48
-876 308 511 48
-857 301 509 64
-853 300 514 56
-833 293 511 72
-823 289 514 64
-846 297 537 56
-872 306 563 48
-896 315 589 32
-901 316 601 32
-880 309 597 72
-886 311 612 48
-843 296 592 48
-838 294 598 56
-817 287 592 64
-819 287 602 56
-818 287 611 48
-823 289 625 32
-844 296 651 56
-1232 433 2369 24
-241 85 966 24
-147 52 907 24
-299 105 3913 32
0 0 319 24
159 -56 1902 24
31 -11 122 24
769 -270 1167 16
2562 -900 1960 24
904 -317 567 32
1530 -537 562 48
1579 -555 566 48
1193 -419 365 32
1204 -423 359 40
1258 -442 364 64
1192 -419 284 72
1195 -420 275 56
1925 -676 397 24
1217 -427 241 48
1190 -418 217 56
1377 -484 184 64
1403 -493 164 64
1342 -471 135 48
1331 -467 123 64
1373 -482 118 56
273 -96 12 48
285 -100 11 80
274 -96 8 96
251 -88 5 56
257 -90 4 48
272 -95 2 56
279 -98 -1 40
294 -103 -3 88
280 -98 -5 56
789 -277 -26 32
255 -90 -11 72
257 -90 -13 56
253 -89 -15 64
250 -88 -16 64
253 -89 -18 64
255 -90 -21 64
255 -89 -23 56
267 -94 -26 56
273 -96 -29 56
267 -94 -30 56
260 -91 -31 56
265 -93 -34 56
267 -94 -37 56
265 -93 -38 56
234 -82 -36 48
238 -84 -38 48
248 -87 -42 48
241 -85 -43 48
234 -82 -43 48
207 -73 -40 48
184 -64 -37 56
203 -71 -42 56
199 -70 -43 56
185 -65 -42 64
177 -62 -41 64
180 -63 -44 64
175 -62 -44 64
176 -62 -46 64
177 -62 -48 64
173 -61 -48 64
163 -57 -47 64
156 -55 -46 64
158 -55 -48 64
163 -57 -51 64
164 -58 -52 64
164 -58 -54 64
159 -56 -54 64
158 -55 -55 64
152 -53 -54 64
145 -51 -52 64
141 -49 -52 64
135 -47 -51 64
136 -48 -53 64
134 -47 -53 64
133 -47 -54 64
129 -45 -54 64
123 -43 -52 64
118 -41 -51 64
112 -39 -50 64
115 -40 -52 64
118 -41 -54 64
116 -41 -55 64
116 -41 -56 64
109 -38 -53 64
108 -38 -54 64
112 -39 -57 64
115 -40 -60 64
110 -39 -58 64
